# 3D point list with one line of data per point:
#   POINT3D_ID, X, Y, Z, R, G, B, ERROR, TRACK[] as (IMAGE_ID, POINT2D_IDX)
# Number of points: 392, mean track length: 5.0744319858365303
12480 1.1704743977277934 0.9200466330572743 2.5970447280638949 245 237 155 0.23221091814844336 32 1820 97 1697 74 1768 57 1547 35 1835 55 1817 38 1801 100 1723 17 1455 65 1523 82 1397 5 987 12 1236 48 994 72 1051 14 678 13 1179 36 669 39 1061 81 835 29 423 46 832 71 28 44 1040 84 849 43 31 78 817 16 603 45 35 9 581 50 509 7 487 53 217 83 207 68 27
12481 1.198041428480275 1.1175933994472635 2.5312928655404372 110 122 72 0.12736956233282282 77 689 98 297 84 429 5 509 97 779
12483 0.39379391987092294 1.7135653630811494 2.4022707601757616 54 41 16 0.62648251036521063 65 400 5 856 84 738 25 1401 35 466 78 710
12484 0.44145537560212855 0.4878746770358135 2.6532847765349619 160 165 178 0.83200725845719958 55 1628 100 1578 86 1041 23 976 33 1497 85 368 25 1369 84 1286 38 2032 100 1923 86 1915 33 1802 23 1967 78 1218 75 947 25 1634 53 886 38 372
12485 1.3162886453419465 1.0100497149341574 2.6008733652402602 60 108 50 0.16685639390393195 32 783 74 815 35 843 5 566 84 874 65 1190 72 434 78 841
12486 1.2660476421192379 1.32276832806304 2.5881308235076599 68 127 68 0.48512561207898225 33 1904 25 1842 84 1357 100 1796 86 1329 65 1816 78 1300
12487 0.097228432019711236 0.89607003177740407 2.537918919959921 194 195 207 0.31481539477127574 100 2136 86 2142 65 1903 56 2084 85 2065 33 2009 23 1969 25 1813 5 1639 84 1429 33 2010 25 1814 62 1834 78 1372 44 1135
12488 1.3024229979161461 1.2371639524363807 2.6056437540825947 185 195 145 0.55982175280571222 33 2245 23 2103 25 2010 84 1575 100 2300 86 2337 65 2106 5 1809
12489 1.1234573620843529 1.2246663677932035 2.4926452804679742 144 171 98 0.99155210253989556 55 2686 38 2686 100 2526 80 2814 58 2707 76 2475 65 2326 5 2014 84 1746 32 2625 97 2432 74 2527 12 2290 13 2195 72 2406 35 2622 77 2810 17 2068 51 2508 59 2342 54 2543 82 2015 41 1986 78 1683 44 1568 39 1570 39 1598 63 1995
12490 0.30311593349961913 0.17024255178677256 1.9505294086048302 34 54 29 0.13526233356992454 5 87 84 61 78 63 44 58 75 36 16 32 53 32
12491 0.20132854898357497 0.61712320586897584 2.1626765306947187 72 136 77 0.12028588032127657 5 178 84 138
12492 0.343031409062518 0.47469310898912914 2.2485451223097215 148 153 105 0.13006450838722727 23 191 84 171
12496 0.77267492887432698 1.5727602793907851 2.3834933357781214 0 0 0 0.024867431869381128 65 1463 100 1677
12497 1.2196327245757363 1.560295181570116 2.7716567258519551 0 0 0 0.76231099500204758 5 1570 25 691 84 1187
12500 0.054432333525952302 0.48253022058599854 1.7402992771578611 79 156 86 0.055943923914958636 5 39 84 30 78 22
12501 0.13746608629746734 0.38268063794308887 1.7824870492383977 73 152 84 0.082008890821118535 82 72 78 34
12502 0.20061951606391201 0.28503790609755381 1.7917144253917732 208 197 141 0.015873954140514318 84 34 78 36
12503 0.20258231429135917 0.22281657947669595 1.8064518069106974 58 142 83 0.11616898682184963 84 600 78 37 44 510
12504 0.15328850723157098 0.39647335182599841 1.8098020000142112 83 152 85 0.047554948082364344 19 51 84 41 78 38
12505 0.31006543633066785 0.10159340689039209 1.8524902375109276 170 172 184 0.15163732622004 65 804 78 41
12506 -0.33973997312801751 0.35737541941643969 2.0061677767553618 97 153 88 0.12502143265901344 38 42 78 44
12507 0.11056991004219406 0.53040142578176008 1.8573703037337501 83 146 84 0.0060141835641637151 84 45 78 45
12508 0.260118213397663 0.24126682515280479 1.8873881915963624 208 197 142 0.029019306516548733 84 48 78 47
12509 0.27372560788742567 0.22713895872288523 1.8888090224814742 101 150 90 0.066659532293774623 84 51 78 49 44 47
12512 0.27572425718574967 0.21582653162233664 1.8965575369914176 205 197 144 0.11150168373942247 65 822 78 55 44 520 39 564
12513 0.24069387677907539 0.31897445324369883 1.8891960638013603 77 143 80 0.083717015937935874 84 53 78 57
12515 0.28994698322039009 0.20087658580996839 1.9121562167939867 60 106 59 0.232012308443897 65 122 78 59
12516 0.30576899087742232 0.16684771637101647 1.9598902138395289 164 166 126 0.16558870049954227 84 66 78 66 44 61 39 93 16 34
12520 0.059466085924708943 0.29552402149972357 2.0647934171409883 60 112 61 0.071147472545091989 54 82 78 75
12523 0.11781169483760368 0.61194766979780346 1.9866510907983348 73 143 80 0.065630740085606487 84 78 78 78
12525 0.12015427179217028 0.63593144848382532 2.0341176240184109 71 140 79 0.034824566093333162 84 88 78 84
12526 -0.18098748560404621 0.96811458120450944 2.0601480537573513 208 209 223 0.1919562988722526 84 638 78 87 44 55
12527 0.091833766219264909 0.69143016514195632 2.0406281690850872 67 138 78 0.0065399818847317725 84 91 78 88
12528 0.42867702877854591 0.85453516356585224 2.0416373674819028 0 0 0 0.32202443863845587 13 307 25 155
12529 -0.12838224153608782 1.0253885433046297 2.0597683825447333 246 204 156 0.34393209104540706 84 93 78 93 44 60
12530 -0.14314535162774741 1.0710177683723079 2.0726829313079018 154 129 90 0.85113066901638024 84 101 78 95
12532 0.60907434004308758 1.5682466845779992 2.3804142882989847 0 0 0 0.10820566574121807 41 487 54 732
12533 0.36129864924439803 0.30313271954111332 2.0915108310892299 150 162 113 0.031217564174298461 84 114 78 100
12534 0.22224935182507966 0.54290998175744376 2.0905416153605256 69 137 77 0.20986412195639007 65 208 78 105
12535 0.076119159323576588 0.58006078744272727 1.8544845141175064 0 0 0 0.081399731323492833 38 143 85 120
12536 0.31606699588969328 0.39359946415986674 2.0923549988948995 64 129 72 0.24209282544293736 5 157 78 108
12538 0.13895737373931727 0.6980096248948654 2.1399552886634594 77 139 80 0.014239650243014676 84 130 78 123
12539 0.056547062961145693 0.82119755305641862 2.1533362251737636 153 159 109 0.037182425054790427 84 132 78 132
12541 0.22197316285640276 0.59740199627299884 2.1725766606030197 70 136 77 0.040714360278234302 84 143 78 144
12547 0.36583300316348533 0.27473994347356756 2.2394316618686259 76 82 57 0.036189981012113036 65 250 84 158 78 160
12551 0.13675860801964845 0.77998406647479068 2.357518331391006 121 138 90 0.022935913303146926 5 225 78 179
12552 0.75308048610493439 0.37540687648032312 2.2150448780265619 120 206 99 0.19637304775464867 84 196 78 183 44 610
12553 0.75245634463278532 0.37558158623110571 2.2152875357846842 120 206 99 0.15966361314700711 84 197 78 184 44 611 92 558
12554 0.85409387574285356 0.44181105795114284 2.2022387761355451 101 178 95 0.080337318804555816 84 214 78 192 44 183
12555 0.74950844391627869 0.3745257637371695 2.2912195960190811 196 199 141 0.079803335222742106 84 709 78 198
12556 0.44924798227129281 0.37364122178946929 2.5917180423837394 202 212 232 1.9838176399372478 25 282 78 232
12557 1.0002315822345167 0.5893618173816334 2.2960905570558916 174 180 194 1.6751709458080608 5 1217 78 239 75 132
12558 0.49534423005514244 0.36611022273438337 2.6377068760310767 202 217 239 0.023275212793505168 84 743 78 250 16 198
12560 0.77235637999192908 1.5717101242067739 2.3865730088431478 133 228 107 0.15314988894164028 84 294 78 274
12561 0.77235637999192908 1.5717101242067739 2.3865730088431478 133 228 107 0.15314988894164028 84 295 78 275
12562 0.81851081465507414 1.3944966913477055 2.4060825763247951 128 228 106 0.056351813228375819 84 296 78 279
12563 0.83718093338974064 1.3648788011801725 2.4130968344780435 125 222 104 0.16513899149244515 84 771 78 280
12565 0.64627095700871351 1.8923194747131584 2.4408625009792613 96 141 76 0.54457625693597578 84 306 78 288 75 193
12566 0.86864548222940063 1.4745301015312144 2.4029487062389547 209 235 123 0.13184721332754018 84 775 78 292 44 687 94 246
12567 0.85321286148670916 1.0591718883021597 2.4934715374258949 251 242 139 0.061162750209286729 84 314 78 295 28 101 5 383
12568 0.93618381734523892 1.2109693553868222 2.4575165376553629 126 212 102 0.011763203468706421 5 924 78 307
12570 1.0719959511420003 0.66884140845242057 2.4938489006849851 110 82 57 0.35709496134823621 84 344 78 309 44 308
12571 0.64341519686643245 0.51225746324476418 2.7829957450556799 176 203 116 0.18165607640492612 84 341 78 314 16 241
12572 2.8437810419706167 0.37197160766781701 1.5988456062049405 245 239 134 2.9004241561181461 84 473 78 328
12573 1.030749109637606 1.4708908299833525 2.430160807004591 253 236 133 0.0089349790844380304 84 370 78 333
12575 -1.2577387891710956 1.7333739343802457 3.8724917677367094 0 0 0 0.94151015947985406 65 412 84 375
12577 1.0051918888750466 0.91539372711178346 2.5645026702807709 255 243 139 0.058694976217815852 84 378 78 343
12578 1.0738193095852788 1.1684343963232033 2.4908372137339092 125 198 100 0.051148633668417938 5 455 78 349 44 307
12579 1.0997998148248027 1.2008402090200998 2.486435804000465 255 243 139 0.23578053942380187 38 1343 97 755 78 355
12581 0.50912264937650686 0.52050369506386129 2.9782630536675549 148 188 119 0.075143251900021205 5 1265 78 367
12585 1.1382891088663774 1.0897589837478541 2.5170045269945946 255 241 140 0.076018586466858898 84 410 78 371
12588 1.1541788807663356 1.2498917557868183 2.4952392813782125 130 205 104 0.062181706179202739 51 559 78 376
12590 1.1655924221986245 0.74425150307394494 2.5971515343958447 79 57 36 0.076737351779346305 84 423 78 381 75 199
12591 1.1768619323841296 1.0396768078984062 2.5421823700385735 114 183 94 0.011264373812617254 84 425 78 383 44 355
12592 1.1833272383093716 1.2499708564785295 2.5075093594833908 244 230 137 0.093007678741479805 65 609 78 385
12593 1.2091337589976181 1.3133524252853657 2.5111313021703965 202 216 126 0.092362833923552032 5 526 78 391
12595 0.94014297114649648 1.2152695304728491 2.7486251557769106 255 245 150 1.2138194552297175 51 541 84 445
12596 1.2315098322153566 0.93643307309758628 2.6036637129057616 106 162 89 0.068244095403625443 17 651 78 409
12600 1.2788440634355289 1.09847513432211 2.5701819808956201 102 192 98 0.010732323477713831 100 728 78 417
12601 1.2489241193523215 1.6455613268574452 4.2532773106711215 0 0 0 0.45873611143774129 17 664 57 626
12602 1.3143627061832051 0.94352625737379525 2.6275491668724391 85 150 85 0.13575030981753092 65 644 78 433 75 252
12603 1.3441162957807564 0.9646921675403064 2.6297952949552563 237 218 133 0.12221274310587675 65 664 78 441 44 423
12605 1.3549862193244937 1.0700488444852498 2.6225055824498416 176 180 135 0.28636708250283388 25 464 78 447 75 262
12606 1.3550266025436748 1.0931749254947234 2.6442593022025878 75 148 86 0.12063991709921119 84 499 78 451 75 280
12607 1.2839908068930992 1.2780958788452197 2.6652498483069564 165 174 129 0.19457448183604567 84 497 78 453 75 616
12608 0.49340030009981445 0.53306572111974404 3.3410833720286948 4 4 4 0.37849891357469206 84 491 78 460 75 1120
12610 1.3741553535310016 0.93896442313827089 2.7226136083265029 174 186 129 0.04236188448159868 5 606 78 482 75 305 53 598
12611 1.1709948142128275 0.75468374873452393 2.8914770629098823 121 91 62 0.28782541311458365 84 515 78 483 44 452 16 664 53 615
12612 1.4401955170981884 1.2298506093923207 3.3784145452444312 2 2 2 0.22101302462892619 84 941 78 531
12613 1.4902341950220521 1.2063547875857525 3.4042529306230094 209 213 228 0.087911763128687842 84 569 78 532
12614 0.03761233326523223 0.28351644557661609 1.5840125782514456 106 79 55 0.59412609050208864 84 578 78 542 75 6
12615 0.080534368729596073 0.24073631379465416 1.590715753335243 253 242 238 0.035798562363884207 84 949 78 546
12616 0.045200375589483012 0.29568061498115927 1.5988793067028026 85 64 41 0.32224084035593098 84 13 78 551 44 497 75 9
12617 0.10650138221407045 0.35127223208094388 1.7798427422733598 186 185 125 0.09194158756560003 84 594 78 566
12618 0.1224399942835098 0.44358874951383409 1.8033542037259496 145 161 106 0.23332796812732851 23 821 78 574
12619 0.21108732397992763 0.26341671305301501 1.8242462226836267 85 160 89 0.06693648994684287 65 801 78 576
12620 0.23332902574525496 0.28884221654074316 1.8412879867409084 85 152 86 0.063072534676203953 84 605 78 579
12625 0.2974428718125221 0.30283238391200301 1.9696103532170335 73 142 78 0.11390191204881694 84 627 78 593 44 538 39 575 16 36
12626 0.31786270687726964 0.33289298829773256 1.9610148765476549 67 135 75 0.009651724316035162 84 630 78 595
12629 -0.19992002185538768 0.96695799947939298 2.036944901272105 102 87 59 1.1121512537121327 84 633 78 604 44 523 39 537 75 65 53 54
12630 0.1179817129186416 0.65715562299556951 2.0802229697908126 72 139 79 0.11768612270569004 84 643 78 612
12631 -0.13207799495374109 1.0978758396137951 2.0680331361377764 234 217 203 0.31092891737721917 84 105 78 613 44 534
12632 -0.050987271525650406 1.0454389901698078 2.0625445734224135 179 138 104 0.065236923589241991 84 645 78 615
12633 0.33066159288047248 0.34188077112749926 2.1043547377534542 69 131 73 0.01162416223444938 84 656 78 616
12634 0.074591274272412508 1.2434296265277753 1.9874040067542558 117 184 99 0.24846263391722126 84 649 78 617 44 889 92 919
12636 0.35296813701365676 0.27762878560130333 2.1376055083371908 42 68 33 0.21860095167654334 84 661 78 623 75 426
12637 0.31408560234074451 0.44061053299188491 2.1312474904648404 66 131 73 0.039156463193766519 84 663 78 626
12638 0.0074849159245383452 0.87857300101840408 2.1675937502016276 142 149 101 0.34621135343678644 5 746 78 632
12639 0.31870637267464369 0.45878943952208173 2.1698631302215055 149 157 110 0.1741643093657837 33 868 78 638
12642 0.33933372873542705 0.48976174119664406 2.2669215653548345 141 146 101 0.13207542612459458 5 789 84 688 78 652 44 140
12643 0.38306236119718856 0.34632025797955091 2.2923693342586668 163 156 107 0.050179717327424052 84 693 78 654 44 918
12644 0.094980291174542791 0.82329407763885609 2.3103238522004785 132 152 97 0.23256822162666568 5 786 84 690 78 655
12645 0.10862088858639331 0.80413492031727196 2.3258611601093926 138 147 98 0.24632438097586873 65 943 78 659
12646 0.23534191301534299 0.65755168566927247 2.3889918351968413 62 134 76 0.028312252596506902 5 801 78 667
12647 0.094282813875085372 0.90476777085533733 2.5510104312948596 174 178 192 0.17292998779090449 84 716 78 681 16 161 53 486
12648 0.93494296049025882 0.49099146615827777 2.2768274213219728 80 57 32 0.274795509430734 84 242 78 687 44 658 5 300 39 712 75 751 16 746
12649 0.99889154496080601 0.56296804007419188 2.2785839407143151 186 198 216 0.24572432809180297 84 261 78 694 75 755
12650 0.4913613107065094 0.37837140186525708 2.593771126008225 172 173 184 0.36273025718265628 84 733 78 706 44 667 39 299
12651 0.49983775784446882 0.35941508404055933 2.6104131401086996 255 255 255 0.095174239337468269 84 737 78 709 44 671
12652 0.48629829234395339 0.35101517101721019 2.6547088247799522 1 1 1 0.66437492179824287 5 309 78 715 75 507 53 491
12654 0.75007223122801503 1.0996264769682367 2.4821442518144488 176 209 110 0.027747378563790365 84 293 78 727
12655 0.75523014523016685 1.6046564473262206 2.3860857889686629 134 230 108 0.046172012061998835 84 1078 78 729
12656 1.0654207513707723 1.2692464248811111 2.2948784490489382 250 245 134 2.369307169247143 41 1186 84 769 78 730
12658 0.84072977448324138 1.2010174721886897 2.4536487367026067 121 200 97 0.17502902417873861 84 772 78 734
12659 0.88478478434996133 1.3682662805312409 2.4167646503790383 132 220 105 0.090551946601530986 84 778 78 737 96 125
12660 0.91996105025001829 1.3155387097164404 2.4279504864888883 135 218 105 0.011491424763754622 84 784 78 744
12661 0.51528883770253631 0.40463759537647243 2.8343812042935701 91 68 44 0.10274298153249731 84 780 78 752 44 727 16 582 75 552
12662 0.87902205227635455 0.96661106069248526 2.5367364001587851 170 188 102 0.14008222794348862 84 786 78 755 44 990
12663 0.87902205227635455 0.96661106069248526 2.5367364001587851 170 188 102 0.14008222794348862 84 787 78 756 44 991
12664 0.93189670146477754 1.4798513836204032 2.4177544354665272 143 230 110 0.029265171191767778 84 1097 78 759
12665 0.90803891211453791 0.95552029262033156 2.5361290901965834 87 150 75 0.1685687066052734 84 797 78 763
12666 0.90571000150566283 0.95606510282045121 2.5374197601457267 87 150 75 0.42728155442534832 84 798 78 764 71 564 45 739
12668 0.98684292526090667 0.84550837894977748 2.5986624471356059 250 233 133 0.4870969421345348 84 821 78 783 46 872
12669 1.0158887817956441 0.88988890747326199 2.576939088600072 255 248 144 0.19849481791855603 84 823 78 786 46 582 71 349 44 753 83 226
12671 1.1610218527705434 1.019241221457402 2.5407545859546272 117 178 93 0.41962003378551926 84 1124 78 800
12673 0.91289392422986959 1.3543069091201296 2.6299131814160948 251 237 138 0.9990408378431177 41 894 78 803
12674 1.1366485478632455 0.67188300548071322 2.6275988767616041 84 64 45 0.43407923207622268 84 421 78 805 44 370 92 682 75 554 16 604 53 751 9 606 50 378
12675 1.1873797002655357 1.0476630320527891 2.5474484708254903 247 233 136 0.185589747421123 5 985 78 811
12679 1.2286402002826766 1.2079013750827468 2.5295357600971888 155 207 112 0.91896189156086061 33 1588 78 822
12681 1.2482566390117169 1.1327221883645595 2.5505117486376632 116 201 102 0.15307709860861857 5 1004 78 824
12683 1.2153125164594187 0.89750947293662642 2.6258067397049816 203 186 116 0.083640392956804838 5 1001 78 830
12684 1.2066352146044228 0.77929175824314012 2.6572311313688579 106 103 49 0.34474897787232728 5 530 78 831
12685 0.94880596325598876 1.2595354638580383 2.7563553572212425 109 192 100 3.081979420356264 84 860 78 833 96 184
12687 0.47539461691336105 0.44104268757088966 3.1977336054055612 0 0 0 0.037435375938864771 84 443 78 836
12688 1.298488389456294 1.1999205963805541 2.5572129298082995 198 208 123 0.30559830951140937 5 1024 78 838 44 380
12689 1.1665218209642654 1.5700230993575148 2.6195268032995829 212 205 211 0.097633252865225187 84 872 78 845 44 365
12690 1.1665218209642654 1.5700230993575148 2.6195268032995829 212 205 211 0.097633252865225187 84 873 78 846 44 366
12691 1.3295566742776141 0.98249066750375347 2.6209007249541356 78 149 84 0.30443551490568821 84 881 78 847 16 629 53 567
12692 1.3357496605190409 1.1476204370867193 2.5968492620488473 77 145 84 0.029366641067741284 84 883 78 851
12693 1.3765994096393848 0.91374684830986308 2.7137244858319556 93 160 86 0.057119307650717058 84 915 78 875
12694 1.2400567332628085 1.4854840656876844 2.7213901802451463 59 41 24 0.11746024372236585 84 513 78 877
12695 1.1118918191479334 0.72868470328313117 2.9374881946267761 72 51 32 0.22035373916045356 84 913 78 879 44 830
12696 1.168661380411872 0.76266086762137575 2.9272751972843656 76 55 34 0.33909654356713997 84 922 78 889 44 456 39 488
12697 1.1827071996212843 0.77776375369105755 2.9463096365541248 120 103 86 0.12226747273739959 84 925 78 892 44 459 39 491
12698 1.278151573139964 1.4179036166984369 2.7857674552213649 89 72 54 0.1471219212602243 84 927 78 894 44 820
12699 1.4238124172939919 1.1252463405484745 3.4193190934965689 0 0 0 0.05413102111103664 84 1203 78 910
12700 1.4962917758852301 1.1321826172466603 3.4229555487905623 247 251 254 0.082373842681084997 84 571 78 911
12701 0.14431098561005226 0.099387601829867056 1.8497302126717199 228 232 248 0.64489643399117202 5 1111 78 922
12702 0.24961815337133497 0.30729450394322755 1.8863050250286726 74 144 80 0.12755766750043696 5 1122 84 975 78 926
12703 0.24677263638666533 0.30814091914947017 1.8875051320177705 74 144 80 0.22855957944241048 84 976 78 927 16 712 44 872
12704 0.29921508906430744 0.2130614522514907 1.9347259710659799 62 110 58 0.40728001318179519 84 980 78 931 44 878 39 898 5 705 75 709 100 1451
12705 0.28944584362795706 0.2774252233351539 1.9330754568580204 83 142 82 0.5363984957425898 25 779 78 932 44 882
12707 0.29501345543076946 0.34925670577483242 1.9566246458501593 184 183 130 0.12506179766732281 84 986 78 934
12708 0.2843683867381272 0.35159713843182566 1.9764385746225139 185 186 128 0.16542884248534431 84 989 78 936 44 888
12709 0.067033827402827095 0.51430539517344909 1.7874390380194207 0 0 0 0.11513440027348747 38 1945 56 1371
12710 -0.18431086894310331 0.97289620289320455 2.047051823966648 107 93 60 0.19907411421202353 84 637 78 943 44 525 75 433
12711 0.31367754232450118 0.34127534884060201 2.0430850433498895 69 134 75 0.23141507285636451 84 996 78 944 44 900 39 908 75 714 16 716
12712 -0.1564592904541558 0.98285130388195807 2.0599365779184109 106 87 60 1.6773839761738312 5 721 84 995 78 945 44 879 39 878 16 450
12713 0.016252807218065116 1.1851094544315259 2.0429639653620653 203 204 139 0.26378409307042855 5 739 84 1004 78 951 16 461
12714 0.37563367668383785 0.38261742720747771 2.2440380313864234 61 118 64 0.078686250682850969 84 1019 78 966 44 916
12715 -0.1326405530923124 1.1652039824631966 2.5249259678693527 103 78 52 0.21335234428350178 84 1030 78 980 44 577
12716 0.91447832431113052 0.46514005342471937 2.2609960059128094 115 88 61 0.039463464220657302 84 722 78 989
12717 0.94051079506462587 0.50076968370130859 2.2887080115937679 242 242 247 0.43235421403715352 84 1048 78 992 44 965 39 988 75 930 16 747
12718 0.29599671280018747 1.2022577969538333 2.5092099361171583 183 169 91 0.040350523117016146 84 1279 78 1002
12719 0.83733500573666819 1.3357200462320264 2.3135644349938524 233 245 129 2.0127448713667224 84 1063 78 1013 96 992
12720 0.72733427937985351 1.3780723986269796 2.4087469634689955 247 247 134 0.039759277416861263 84 1070 78 1018
12721 0.82548044107950402 1.0267154876941487 2.5056189276237721 234 231 129 0.33663426031131793 84 1082 78 1030 44 1173 16 780 96 801 53 181
12722 0.91041806320619978 1.2976091282565183 2.4265181585867035 130 213 103 0.077873772342272898 84 1085 78 1031
12723 0.5641411748166848 2.0011142821473968 2.5112298708337284 0 0 0 0.028060455824485797 84 1084 78 1034
12724 0.88393895965469105 0.92421303206789374 2.5547136860218247 136 173 89 0.084999072306144369 5 1258 78 1038
12726 0.50563902839082475 0.41068576974327542 2.8837990436222483 255 255 255 0.25001909784836562 84 794 78 1045 75 979
12727 0.99599600369546282 1.0362496531069942 2.5162716840750927 117 184 94 0.19989946967228192 84 1103 78 1048 44 995
12730 1.0235435193274243 0.86558070539310894 2.5930021181677132 252 241 141 0.1760299205453642 84 1112 78 1061 44 1016 39 1038 92 840
12732 -0.24494861785464692 1.7589512159713094 3.1739881219916706 117 201 100 2.9206917051397263 82 780 78 1063
12733 1.0130904143266377 0.63265241613317158 2.6546360850429682 146 157 86 0.046804797587877298 84 829 78 1065
12734 1.0986502463884011 0.98729043035134578 2.5502391662094124 105 171 88 0.13703492292606909 84 1333 78 1067
12735 1.1951519362565715 1.2271621556376171 2.4868490918233435 252 236 139 0.23567143593821926 84 1127 78 1076
12737 0.6134266993009766 0.52623514456405007 3.0345161112690064 173 182 199 0.049610758378696912 84 1136 78 1088
12738 0.84523781145086629 1.6486514281553264 2.3964766500707486 0 0 0 0.02197830238140798 65 1493 100 1709
12739 0.90821745969523104 1.8335472911431441 2.6769281142496348 103 78 53 0.071564935693112758 84 1146 78 1100
12741 1.1761385596722445 1.5814559442160896 2.6405947944253056 207 189 162 0.29104578543876464 84 882 78 1112 44 780
12742 1.2882941118468283 0.84189802518657286 2.7228873292299314 92 165 88 0.42369014186947318 84 1177 78 1119 44 1073 39 1086 92 892
12743 1.3399469242146749 1.1379794511181436 2.6457945274254477 76 156 88 0.32969598223553881 5 1337 84 1178 78 1120
12745 0.58866435197681943 2.1654408389543769 3.070684684574239 0 0 0 0.2403995055360022 84 1181 78 1130
12746 1.1299701507637601 0.72810019333834552 2.9637370688792548 90 69 46 0.68399590580193004 84 1186 78 1132 44 1232 39 836
12747 1.1275841749337761 0.75169879033916998 2.9680773762282384 243 244 253 0.94514300800975237 84 1189 78 1133 44 1078 39 834 16 1012 53 1034
12748 0.65338215793052834 2.2160417207053338 3.165646975181482 0 0 0 0.2018785491307106 84 1192 78 1141 75 892
12749 0.26397749545146582 0.29262152475169534 1.8994654265026056 75 146 81 0.0144478901743244 84 1218 78 1164
12750 0.3183067726306843 0.18893168374271918 2.0034619717727984 175 174 129 0.045030393953971404 84 1224 78 1169 75 912
12752 0.11957911406525049 0.72520843364860554 2.1679141386115934 72 140 78 0.14126198956064276 84 1241 78 1182
12753 0.3968312150611521 0.23168515846624313 2.1898795669752316 196 195 205 0.52238056148742307 84 1242 78 1183 44 912 39 609 16 81
12754 0.23526166009994048 1.4142966042004956 1.9965589205511003 230 238 253 0.28907473290554903 5 1412 78 1184 44 1120
12756 0.8340383733521487 0.23506163064956592 2.1849242656558836 255 255 253 2.2565578699350901 84 1022 78 1196 50 341
12757 0.33878400995855285 1.504335158863362 2.4358077228403827 187 223 114 0.33339707413070663 84 1440 78 1212 44 1284
12758 0.69875870498221027 0.93247828068221683 2.5475660582674906 70 122 59 0.14003545642850909 84 1292 78 1224 44 1314
12759 0.62147530488003944 1.9202409348849647 2.4095093676205761 0 0 0 0.09057940862147984 84 1291 78 1225 75 964
12760 1.0305556034028061 1.3567446861559074 2.4429812021855817 133 216 106 0.21044144225226902 84 1319 78 1244
12761 1.0544367024851382 1.300967255914032 2.4553968718340218 255 244 141 0.099732204169618588 84 1322 78 1252
12762 0.48362066441828544 0.42245241985297377 2.9701131271381382 0 0 0 0.02713933774564159 84 1320 78 1256 75 1098
12764 1.0681612125049722 1.5930104738027036 2.4773688152162441 97 142 87 0.065812682746882956 84 1335 78 1266
12766 1.2996123930264498 0.9040167483077266 2.6446452997171086 80 148 84 0.15567630580496616 5 1551 84 1359 78 1301 39 1266 82 1414 16 995
12767 1.2680239989156796 0.84165961748430929 2.8055159368441109 90 180 99 0.39227846107553294 5 1562 78 1309 44 1228 75 1109 16 1105 64 870
12768 1.3244490184472466 1.2231809020699904 2.7613082694617002 236 243 255 0.3207030490146941 33 1922 78 1312 16 1006
12769 1.3784968552146235 0.94619202304197558 2.873572743275516 127 96 63 0.28374982345072508 84 1500 78 1315 39 1277 92 1022
12770 0.52832539470204531 0.58851721034750515 3.6653468044531019 0 0 0 1.4844256930956832 84 1374 78 1317 75 1028 44 474 16 700 16 1019 53 954
12773 0.3301489811025986 0.2581687302524357 2.0446127665407436 131 152 102 0.18918358599999915 5 1610 78 1345 75 1046
12774 0.3443566394544838 0.21808402702785235 2.1081093067682275 66 75 55 1.0370168441368834 84 1404 78 1347 53 850
12775 0.025434912718248465 1.1932596500229429 2.0335676897530228 205 208 140 0.17564666767091583 5 1402 78 1350 44 1256
12776 0.042586468499293671 1.1989660722730691 2.0645771181044954 135 170 103 0.36580555711497337 84 1411 78 1353 44 1257 39 1294 53 969 75 1053
12778 0.9734482500191417 0.51384923051708176 2.2306199760862566 254 254 255 0.36135839225717148 84 1435 78 1373 44 1296 39 1331
12780 0.50179881929460979 1.1350003209246289 2.4802331461597409 174 170 90 1.3002774432763045 84 1443 78 1387 44 1465 39 1518
12781 0.44846836637189802 0.63646411254729307 2.608206088348652 0 0 0 1.348764643306215 84 1059 78 1389
12782 0.77983495528818703 1.3311845864348435 2.4148015200141977 250 247 136 0.25253511539844647 84 1449 78 1396 44 1307 5 1660 39 1329
12785 1.0215543709197634 1.1122729837462144 2.4927149753201312 125 193 98 0.26081905216597562 84 1461 78 1407 44 1322 28 900
12786 1.0101642465100422 1.5993738429147517 2.4472460466379675 192 195 108 0.27246248774359866 84 1463 78 1409
12787 1.1868891716945613 1.3083718382523728 2.5083025064679023 212 224 130 0.056990953355987861 84 1468 78 1414 44 1329
12789 0.0067405902166922417 0.35533246100283961 1.5994559740931587 78 60 41 0.34590363459855172 84 1510 78 1446 44 1373 39 1286 75 1130 16 1117 53 958
12790 0.30927566569290482 0.20179000263072891 1.9682951556041319 187 187 135 0.38467183675826921 84 1515 78 1450 75 1134 16 1120 53 964
12792 0.36102217439239503 0.16457693975152834 2.0521585974360219 197 201 216 0.4941242659633045 84 1519 78 1455 44 1258
12793 0.2154203923359177 0.52009903603140328 2.0494069843034786 156 165 112 0.36665945563685931 84 1520 78 1456
12795 0.054860486456363794 0.80092945577914632 2.469352547603437 52 107 54 0.23877955867886513 84 1529 78 1468 44 1457
12796 0.96897264494504842 0.51122207222609806 2.2833245567540024 253 255 255 0.2604975192592815 84 1534 78 1472 44 1404
12797 0.22033054264125165 1.6056827044345781 2.4022865200880053 0 0 0 1.2396681011233992 84 1434 78 1473 44 1388 39 1388
12798 0.8412761316412779 1.553892927042607 2.4131600482797535 126 233 107 0.49206516830380237 84 1553 78 1497 44 1407
12800 1.114461881097196 0.66661022567372208 2.5920139923368892 113 80 52 0.41018918107957669 84 1559 78 1503 44 1426 39 1364 75 1172 16 1154 53 1065
12801 1.159221082107738 1.2377691596772542 2.4720061610725343 250 240 139 0.13916476133544226 84 1560 78 1505
12802 1.0691248662081809 0.65013723956077663 2.6900469903584585 166 190 102 0.29275569086958086 84 1564 78 1508 44 1483 39 1486
12803 1.2296152058124428 1.499751348669613 2.7369016290387163 113 92 71 0.18503255512738817 84 1580 78 1519 44 1353
12804 1.4125355605036365 0.96552985318751516 2.7947358307312249 255 255 255 1.4249875347168874 5 1817 78 1523 44 1441 39 1441 82 1843 16 1252 75 1281 53 1153
12805 1.4412404625027244 1.084653365491228 3.1001768063703121 73 52 27 0.037459549131013153 84 1506 78 1529
12806 -0.0094648573554793353 0.33416582829012431 1.5173577437816843 196 158 129 1.0667966623756677 5 1823 84 1590 78 1530 44 1443 75 1033 5 1729 16 1116 53 957 2 545
12808 -0.12825746391416765 1.1022764977087403 2.2081956119980637 0 0 0 1.1983711320477333 84 1658 78 1540 44 1498 39 1505 16 1262 75 1296
12809 0.018489783407485763 0.88845971096491094 2.2336694609159058 131 149 99 0.52176949426756147 84 1597 78 1542 44 1384
12810 0.5883219381184599 1.2161354462644101 2.454659965299979 216 238 124 0.68453195360004482 84 1608 78 1548 44 1467 5 1855 39 1525
12811 0.59764264613109519 1.8942825947580142 2.3977719057253508 172 213 104 1.2551352793225985 84 1671 78 1553 75 1225
12812 0.77502684290522328 1.4449861216338018 2.4016787988112411 123 225 104 0.29207790064380457 84 1674 78 1554 44 1513
12814 0.87905640604903212 0.82438527883344737 2.5662383576617129 163 190 96 0.27964106321318427 84 1618 78 1566 44 1417
12815 1.071454940234505 0.73423292585464883 2.53921798558076 239 228 229 0.66444643671139492 84 1685 78 1569 44 1421 39 1430 65 2205
12816 1.0964535977034311 0.71915412002364798 2.5722083246920193 72 55 31 0.67486677200417444 84 1626 78 1572 44 1425
12817 1.1038697358451846 0.65934538483481064 2.6341574394959957 255 255 255 0.49038445130217473 5 1681 78 1573 44 1482
12818 1.4602901701716891 1.1992372354540206 3.4816361834797309 248 255 255 0.027248747425463585 84 1648 78 1599
12820 0.84119497126935838 0.44387108923806895 2.2390260746663935 96 169 90 0.44576349378791308 84 1665 78 1617 75 1216
12821 0.86176595616621299 1.0994088797261394 2.4856175488324359 102 183 88 0.69853336896929552 84 1728 78 1626 44 1560 16 1235
12822 0.86176595616621299 1.0994088797261394 2.4856175488324359 102 183 88 0.69853336896929552 84 1729 78 1627 44 1561 16 1236
12823 1.388481010259349 0.95923179436910377 2.8067474056597672 255 255 255 1.6169190960028208 84 1703 78 1650 44 1541 75 1319 16 1285 53 1178
12825 1.4754615464481486 1.0390680094947669 2.9728742268495352 66 43 22 0.24510770264240272 84 1704 78 1652
12826 -0.20322155809017625 0.69331691616799729 1.7139444630679446 98 130 76 1.3956626762311046 5 1996 84 1705 78 1653 44 1542 39 1550 75 1254
12827 -0.252402025089278 0.9349929235644977 1.9666688715043634 191 193 207 0.65552515277696799 84 1708 78 1656 75 1258
12830 0.24532345687705884 1.5103116400680388 2.0709079478993799 0 0 0 1.2952269601276807 84 1719 78 1666 44 1501 75 1264 16 1182 53 1131
12831 1.0543130409690866 0.9488340545817161 2.5593033806427328 188 204 114 0.83756446868025125 5 1987 78 1682 16 1244 75 1230 53 1109
12832 1.1345775412471162 1.2174759962403028 2.4873359631971899 161 217 112 0.49445301106813849 84 1747 78 1684 44 1569 39 1571
12833 0.98238131282495589 0.60125845279603118 2.7340138585091722 126 240 121 1.9363568523545829 84 1751 78 1687 44 1575 39 1582 92 1293
12834 0.062163489189188938 0.36678534009545927 1.7453815542325704 133 168 103 0.77093574843289137 84 1762 78 1697 44 1543 39 1551
12835 0.50296039844628981 0.6260019346025838 3.176164172815187 0 0 0 1.1388837754410905 84 1756 78 1708
12836 1.4403663443450239 1.2289799010339955 3.3193830700112184 0 0 0 1.5313392110990549 84 1775 78 1711 44 1581 39 1606 75 1352 92 1295 64 946
12838 0.51455229009302361 2.1371250004047964 2.6507975122634138 0 0 0 1.2304186670407133 84 1772 78 1725
12839 1.2780425449725483 0.86076674012535859 2.8737055883724771 255 255 255 1.0718607083812361 5 2039 78 1744 16 1322
12841 0.06333177593440048 0.79417214801000346 2.1332783256147962 58 121 65 0.73911337958642642 86 2367 65 2129 56 2314 85 2268 33 2214 23 2145 25 1980 66 2092 62 2031 93 1918 19 1830 19 1924 78 1459 5 1751 84 1522
12843 1.3634099205053791 1.0658369849074782 2.634280740507096 66 126 68 0.44634734314636754 100 1793 86 1299 65 1579 5 1335 78 1117 85 1186 33 1892 23 1551 25 1688 75 1001 16 839 44 1064
12845 1.3054126794072956 0.95285936827247431 2.6166583714537666 76 129 66 0.17990798092725979 48 508 74 812 13 742 35 839 17 661 36 66 78 843 65 1184 5 1025 84 871 100 715 44 805
12846 1.3640743232930557 1.0500310121527616 2.6327641731578422 172 180 135 0.20543947972872217 65 1208 5 1053 84 898 78 863 33 1142 25 1445 75 839
12847 1.2672137654607623 0.99062436943489962 2.5876863548421301 75 128 65 0.24270925186323147 100 2028 5 1538 78 1292 32 2135 97 1982 74 2058 35 1861 97 1727 48 1381 57 1556 77 2206 82 1406 92 855
12848 0.17848889467133033 0.35956283153696844 1.8202380517035084 78 150 81 1.0256603752369509 56 2445 85 2387 33 2361 25 2128 78 1698 12 2233 72 2355 97 2382 57 2121 13 2144 48 2040 32 2556 74 2475 35 2565 77 2731 55 2623 38 2618 100 2469 86 2512 80 2756 17 2034 51 2474 59 2364 54 2558 58 2727 65 2278 82 1996 5 1999 84 1763 44 1544
12849 0.060759618196111108 0.76972710814631629 2.0917086195954209 27 46 22 1.99620495606524 65 2185 78 1537 66 2187 93 2093 19 2001
12850 0.62725016628373143 2.1520252071131556 3.1993238117373921 0 0 0 1.7938421144398609 100 1363 25 1759 5 1348 65 1832 23 1907 33 1960
12852 0.78104276495041491 0.94627126470485812 2.5430809329947661 93 150 75 0.019857083755097094 84 309 78 287
12853 1.1107345611475907 1.0861954151948727 2.5142504903378482 154 205 107 0.20590269195458166 84 398 78 361 44 322
12854 1.1382891088663827 1.0897589837478521 2.5170045269945915 255 241 140 0.076018586466903584 84 409 78 370
12858 0.20425899366738692 0.60827467688405612 2.0913955892681644 68 139 78 0.15369322905352314 84 655 78 618
12859 1.0730161352409904 1.3762358737355478 2.4537346923287697 137 220 110 0.051008720569841876 5 974 78 785
12861 1.1114177107651466 1.1730608024952316 2.4895513981984112 117 201 100 0.10044600252280761 84 1113 78 1062
12862 0.33140542715281596 0.2780895102014011 2.0357804296359845 64 113 62 0.590387850797779 84 1231 78 1174 44 1118 5 1392 39 1139 53 683
12863 0.94377556704060261 1.0857891818160166 2.4944750879350517 241 233 130 0.52313899985235024 84 1622 78 1500 75 1079
12903 0.092057890239678572 0.34856630353366125 1.7213483437641812 180 173 118 0.38498996051680018 82 1144 100 856 44 30
12904 0.68602988868004955 1.627753375627385 2.3729688828163464 0 0 0 0.32961804019095375 54 754 66 540
12905 0.2597477856705076 0.26653099025607468 1.8881041313042715 92 156 89 0.22933106817223775 65 114 44 45
12906 0.27234737857664865 0.22752290743360895 1.889243212627852 102 158 91 0.080715754420091851 5 69 78 50 84 52 44 48
12907 0.13305056741051502 1.0997870541612573 2.0317586158184495 0 0 0 2.1169192879300089 33 235 41 335
12908 0.069527032518425583 1.2270475466840103 2.0561534748736898 195 198 140 0.60577171287804188 78 133 44 82 92 35 2 29
12909 0.067355674743693389 1.2264768844305671 2.0705449973844083 84 142 77 0.41437126297973725 78 138 44 87 39 72 92 39 2 30
12910 0.34114285937076794 0.27708228753979713 2.06953507700391 202 199 146 0.26629187649837488 5 145 44 99
12912 0.34212677520743739 0.28128775443920817 2.08359128264147 77 127 73 0.17851517287590257 5 150 44 104 39 116
12914 0.35027392247672734 0.28739519098646799 2.1092422431549749 61 109 58 0.20637455339584296 84 120 44 112 75 52 53 44
12916 0.35862279623284593 0.37490267546056999 2.1785466587895042 86 148 87 0.032023615896081367 5 194 44 126
12917 0.34959253644778893 0.42477578892323503 2.208200014218336 73 139 77 0.10978990782127239 5 213 44 130 39 140
12918 0.43378327281192092 0.20014334118268245 2.2163534369694586 252 250 252 0.091152337691945806 78 155 44 136 39 174
12919 0.083518045127783644 0.8082881030729584 2.4450031572926054 84 114 73 0.25656983270020639 65 305 44 144 39 913
12920 0.83340886850449203 0.41698988498161427 2.2151620510008496 254 248 165 0.039234265412403491 84 210 44 181
12921 0.88328651424109783 0.45906168012140225 2.2174245239926673 71 125 62 0.082859077712610432 78 202 44 197 39 274
12923 -0.73605722491320325 2.1754862340654215 3.5472278140133695 231 219 123 0.72909360747507912 65 470 44 264
12925 0.96931785825841776 1.4020320367071233 2.4244824038909343 142 224 109 0.13667053056203754 65 1117 44 269 39 301 63 423
12926 0.8833871379716397 0.99461161546464572 2.5204273333854004 221 210 119 0.39110092353019132 5 394 44 274
12927 0.89641734049247113 0.99926330178858713 2.5193280661908495 101 151 77 0.09313421290827148 17 521 44 277 77 534 97 655 12 588 39 328 29 77
12929 1.0436479222908996 1.4515425305171836 2.439909761568805 243 228 129 0.089403006479537139 5 453 44 285
12931 0.93243829546701784 0.9892718162680133 2.5285320871119072 106 163 85 0.031513460443761063 78 313 44 290
12932 0.43211935210648894 1.6087156460135466 2.8822997808972426 107 187 93 0.36375920321525218 82 298 44 293
12933 1.0144418419363535 1.0785623486241487 2.5009364129215874 114 178 90 0.11068870836733874 41 216 44 297
12934 1.0321358412522723 1.1245591231537484 2.4918332964402801 109 182 91 0.059919274373838406 78 331 84 372 44 298
12935 -0.31837685695811352 0.020880165111342251 2.2962718527599466 0 0 0 0.54446169770729846 25 131 85 136
12936 1.0538589000534608 1.1535517276765674 2.4871912315309395 126 197 100 0.17125616672804647 41 236 44 302
12940 0.38126256616562587 0.54376145316769497 2.9925401317983216 245 240 252 0.99334913224679622 5 897 44 315
12941 1.0701938484986862 0.66768332110782824 2.5182205662187256 92 67 45 0.64987108103929347 78 315 44 317 39 391
12943 1.3828606114967104 1.0316434788902444 0.85845646215949811 0 0 0 1.3872117329269358 35 579 86 235
12948 1.0564979976343774 0.91607721187515789 2.5706902188613698 93 148 81 0.21797386579914618 13 678 82 562 44 333 48 479 57 667
12949 0.70779787394804794 1.6029757156322531 2.3762827399792155 0 0 0 0.103498583722368 35 599 100 562
12950 0.8491473774145919 0.60461482967865765 2.7239069068226427 81 139 65 0.25805359250034421 84 379 44 335 39 779 92 334 9 236 50 207 37 160 67 78 42 65 24 50
12951 -1.5392481130354558 2.0235328965911981 4.4931271973067659 85 143 73 2.3641688545466311 5 456 44 340
12954 1.2400123849280575 1.1105062623774162 2.5473293912138466 234 229 137 0.091598012133823292 82 590 44 363
12958 1.2554023513384827 0.96395599189664727 2.5946190922234269 94 157 86 0.43751378362191012 84 457 44 388 92 313 16 611
12959 1.2329994953280308 1.480698494018003 2.6589836088528291 113 91 62 0.14118882659651841 84 493 44 398 75 308
12961 1.2986430380748433 0.97163603662565534 2.6058325496140218 197 202 120 0.12460513181988238 84 463 44 402 74 807
12965 1.3354901626098363 0.92698236092770847 2.6453039961347034 60 107 60 0.21750751279928832 82 637 84 488 44 424 92 354
12966 0.52002735486354057 0.52443851105167849 3.304355374445028 248 251 255 0.24180959139540459 78 456 44 428 75 886
12967 1.3349644103890597 0.88344463335953483 2.7236568830922105 101 169 94 0.15437350978489217 78 464 44 445
12968 1.0111728850439019 0.69867535471548003 2.9868623098694829 84 66 47 0.96863906911930364 78 471 44 448 16 666
12969 0.49233669794916685 0.60121175571773533 3.5463406309622703 1 1 1 0.2272012532193585 78 1145 44 460 16 407
12971 1.4215398575230938 0.95977188085213949 2.7672886413887627 218 200 190 1.1274768044525911 78 897 84 548 44 462
12972 1.5177316920671569 1.2039651695201563 3.3973589226587317 1 1 1 0.38888364402855607 82 656 44 482
12973 -0.11893526457700816 0.42754707466327063 1.5248459590446279 211 168 133 0.61583813086790973 44 485 70 2
12974 0.0074316534975734181 0.34985775119524082 1.5883692030096617 64 46 29 0.041565378865609827 78 548 44 493 75 393
12975 0.014889782379415987 0.34388400329965441 1.6244345659615684 215 219 235 0.28536845927245225 78 916 44 498 16 707 53 673
12977 0.913230816758691 1.0453941488843801 2.5028257210120683 0 0 0 0.0059868816834501241 58 523 80 1330
12981 0.32345101240982843 0.23194284406780508 2.0114508443434427 61 112 61 0.29992728744118369 5 720 44 543 16 436 53 433 64 16
12982 0.20612317697049529 0.55114420462537239 2.07739965966611 73 149 84 0.071445143813098647 84 647 44 547
12984 0.35044029523758286 0.25072914911711575 2.1300280709932378 141 153 111 0.13420380680727459 78 110 44 556 16 464
12986 0.37009885760848293 0.32469508883821308 2.2171585294898826 196 193 140 0.62758384851773685 5 765 44 568 53 442
12987 -0.60757940596554816 0.91951950783547076 2.7117259126737214 136 145 98 0.54749720875449093 5 223 44 572
12988 -0.069473927659556567 1.2420971166987653 2.6054311532532193 130 127 82 0.32738123500297556 84 235 44 601 39 606 82 1176
12989 0.46801659467618045 0.32833812661666573 2.6062036513307767 4 4 4 0.36667933054473334 82 392 44 665 16 186
12990 0.46801659467618045 0.32833812661666573 2.6062036513307767 4 4 4 0.36667933054473334 82 393 44 666 16 187
12991 -0.773650944603823 2.1023947708606148 3.429374059964724 226 218 123 1.9785365314601864 84 802 44 679
12992 0.94348964163339044 1.1930463873943542 2.4569689317465522 240 226 130 0.10473765980232809 84 1094 44 708 39 722
12993 0.96073728800375491 1.1176004728247444 2.4834405897204523 200 214 117 0.052388532962805802 78 1042 44 713
12995 1.0748305233602928 1.3752701083216234 2.4524634000873933 134 219 108 0.086848181820238124 78 784 44 731
12996 0.53114258186483032 0.42117852719211235 2.8635138955352137 102 80 56 0.34948309116076393 84 793 44 739 39 1031 82 1002
12998 1.0714589665637617 0.65392434244545794 2.5156013396124397 255 231 177 0.62748884357828572 78 766 44 748 75 169
13000 1.1577270274603257 1.1579937694806632 2.5123487069474808 122 206 104 0.15478969296482312 14 667 44 759
13001 1.2293509285926516 1.1486924335239015 2.5311747482049287 119 204 104 0.12802420930562275 78 820 44 771
13002 1.1166820700834268 0.88183080238844691 2.6114631021203958 70 131 75 0.23043115371692163 17 643 44 773 16 258 53 214
13003 1.2782859908662723 1.1620947116424283 2.5636538711892451 199 212 124 0.011464857139224479 85 541 44 786
13004 -0.34073539929806368 1.7416131388522749 3.9680091781294275 0 0 0 0.16097326852577931 32 1089 55 1219
13005 1.1353708641748892 0.68045557706432658 2.7131066435223237 96 159 94 0.54459752926404859 78 829 44 797 64 199
13006 1.2482140742954997 0.86974344278111637 2.6576063361105322 62 130 74 0.045192673666696354 84 868 44 806
13007 1.2447515103277169 0.80289815713755486 2.7388572885038345 163 182 127 0.22433502923795187 78 861 44 813 75 609 16 649 53 589
13008 1.1195715801796224 0.72364609179943096 2.9166321563719828 250 250 255 0.32299292719437267 78 872 44 826 75 644 16 852 64 486
13009 1.2071965585471753 0.79008053742339335 2.9069360535267483 98 72 44 0.53206267058276657 78 496 44 832 75 870 16 668
13010 1.1726178827549474 0.76815771561808976 2.9383325532410911 240 241 250 0.33524154844747073 78 497 44 833 16 676 53 629
13011 1.2242122026867106 0.79964106859957618 2.9105908691366018 104 78 49 0.20675467176193343 78 891 44 834 16 857
13012 -0.13195810656978735 0.5247760283818409 1.5646481962322949 211 213 227 0.078045986264321923 5 1086 44 857
13013 -0.030753750130082476 0.40441220554639745 1.6078797259349749 205 209 223 0.63705588370653199 78 914 44 860 75 400 16 705 53 425
13014 -0.2137491298272039 0.66030877051080139 1.6507731720738816 192 190 199 1.4811716559002548 78 557 44 862 39 863
13016 -0.14741734387701597 1.0567494737179033 2.0751939096598853 241 217 176 1.084172653140641 78 949 44 884 39 1120
13017 0.92239806068742769 1.0295150185129152 2.5152212088454249 0 0 0 0.075203942086392292 54 1151 80 1828
13018 -0.026292324907791639 1.1409210067682525 2.0841876187855499 104 160 86 0.31293607874824236 78 954 44 893 92 926 75 734 16 723 53 692 64 531
13019 0.250236260538303 1.4824507904652557 2.0572509355588044 0 0 0 1.8416026250432962 84 1249 44 907 39 900
13025 0.94799576799866203 0.88255065705999003 2.5756595486974332 238 225 130 0.45840242070374015 82 1365 44 1000
13027 1.0986071185929169 1.2524894334849102 2.4745461832122913 120 209 103 0.078787764657091031 78 1059 44 1002 39 1017
13028 1.0306629684129256 0.99418717612916219 2.5309141149047565 107 164 86 0.38585851791755987 17 1424 44 1004
13029 0.40496637013413272 1.8882549630123553 3.0708984493096709 233 231 138 0.41029359841270396 55 1820 44 1018
13030 0.52757614377845108 1.42825603061585 2.9799638525686225 102 159 84 2.0893172108796687 82 1303 44 1021
13031 1.1006762860562842 0.65228957559577228 2.5753279005976717 255 255 255 0.27803347012146346 5 962 44 1027 39 794 82 605 75 788 53 736
13034 1.0413535832754457 0.64632526017016201 2.7060392839516139 107 150 85 0.23685346523899556 78 809 44 1046 39 1075
13035 1.2508291895197183 1.0505006185003609 2.5731197725453456 105 186 96 0.0055628559108756902 84 1149 44 1048
13036 1.0468407145413299 0.69997282338355116 2.9723873296326286 98 78 57 0.21610485755745598 78 1127 44 1076 39 826
13038 1.4328873587895259 1.0808280952717213 3.1073850463010797 72 50 21 1.2974758249941505 82 1101 44 1087 39 1101
13039 0.12606782162265653 0.3338411950012507 1.7560633406600521 84 164 91 0.27592926004101043 78 920 44 1097
13041 0.68157184634180534 1.0874166805942163 2.4754595268168167 200 212 116 0.25764928759539552 78 1017 44 1163 39 1194
13042 1.0907210506227054 0.91496246288663552 2.2540496173823112 112 183 89 2.0610906032839087 13 1938 44 1166
13043 1.0510197698787138 1.3052287582225199 2.4573315017103301 246 229 135 0.46822964009906615 35 2385 44 1186
13044 1.1190010938075059 1.2176696499782427 2.4898787243624096 178 221 118 0.095736655169102236 51 1950 44 1198
13046 1.1960910535713847 1.4095918033441919 2.4982238599922293 155 222 104 0.38288912443199313 78 1283 44 1206 39 1228
13047 1.1680240517560021 0.88421706666469735 2.6237979531953854 158 164 101 0.94158901944322382 82 1606 84 1348 44 1217 16 985 75 983
13048 1.2684261448855851 1.3131251810015439 2.7779482345420412 241 241 252 1.5715668555813351 5 1720 44 1227 16 1104
13049 1.3092526380817775 1.3144116821349194 2.8156444359575432 0 0 0 0.033459481764579649 65 1838 44 1229
13050 1.2288622638433802 0.81931659124903722 2.9567818925377867 255 255 255 0.94295759304714832 5 1351 78 1436 44 1235 39 1275 92 904 16 1173 53 1089 2 834 9 662 89 626
13052 1.2153721275226395 1.1283304994634986 2.5257742356370629 125 207 106 0.31497150316829914 84 1471 44 1333
13053 1.0161189203844394 0.63873660023970846 2.7044477589316998 176 188 107 0.1256624812973679 84 1342 44 1336 39 1365 92 1113
13054 1.1945110176968599 0.79220217095250156 2.6558237002816503 48 51 16 0.46188317458805095 84 1568 44 1346 39 1261
13055 0.50856292919561963 0.57751024665294981 3.5056670006465045 0 0 0 1.6438710158918364 65 2165 44 1363 39 1379
13056 0.36279057416166022 1.5658372788677073 2.44402526151588 164 214 107 0.84749787930969667 78 1385 44 1391 39 1395
13057 0.48903047028344582 0.37462086316393095 2.7008573117226531 255 255 255 1.0399562449284567 5 1463 44 1410 39 1413 82 1810 75 1222 16 1197 92 1262 53 1106
13058 0.80914451786141017 0.97696803038324809 2.5153556479295589 205 205 115 0.46150914016771849 5 1792 44 1412 39 1410
